2738.51500549273168872 -891.61590910832001100 963.16796875000000000 0.00000000000000000 0.00000000000000000 -1.00000000000000000
2607.14052525215265632 -907.26555609228512367 964.43798828130002221 0.00000000000000000 0.00000000000000000 1.00000000000000000
2607.66894471963223623 -906.79916116316894659 963.16796875000000000 0.00000000000000000 0.00000000000000000 -1.00000000000000000
2505.63010711224842453 -874.30847793279497182 961.67492522469490268 -0.09943854155410148 0.99504370580070156 0.00000000000000000
2505.18453414559371595 -875.63022100950797721 961.96862009849996866 0.09943854155410148 -0.99504370580070156 0.00000000000000000
2503.36496770312078297 -881.02776423573868669 963.16796875000000000 0.00000000000000000 0.00000000000000000 -1.00000000000000000
2501.43818442992596829 -886.74335436857973036 964.43798828130002221 0.00000000000000000 0.00000000000000000 1.00000000000000000
2664.21725147570350600 -869.42615781680024156 964.43798828130002221 0.00000000000000000 0.00000000000000000 1.00000000000000000
2663.08846941584170054 -865.84833259239894687 963.16796875000000000 0.00000000000000000 0.00000000000000000 -1.00000000000000000
2661.25381089601660278 -860.03313782291820644 961.10375083203553004 0.09944157523003300 -0.99504340262913626 0.00000000000000000
2660.86332046677489416 -858.79542634848348825 960.66440076654725999 -0.09944157523003300 0.99504340262913626 0.00000000000000000
2692.89546561899351218 -855.59433098129784412 961.21697166181513694 -0.09943854155410148 0.99504370580070156 0.00000000000000000
2693.97525780167143239 -856.76305712542625770 960.46313157313716147 0.09943854155410148 -0.99504370580070156 0.00000000000000000
2927.00509669097073129 -860.42563883214666021 964.43798828130002221 0.00000000000000000 0.00000000000000000 1.00000000000000000
2925.86390957053299644 -858.81909540318201834 963.16796875000000000 0.00000000000000000 0.00000000000000000 -1.00000000000000000
2934.46598690229802742 -892.60362443219219131 964.43798828130002221 0.00000000000000000 0.00000000000000000 1.00000000000000000
2933.04040970232063046 -893.59535089888163384 963.16796875000000000 0.00000000000000000 0.00000000000000000 -1.00000000000000000
3152.44206523583625312 -810.94529540621238084 958.98449188985932778 0.09944157523003300 -0.99504340262913626 0.00000000000000000
3151.09705067393451827 -809.80448568100837292 959.81196337820688314 -0.09944157523003300 0.99504340262913626 0.00000000000000000
3166.87207031300022209 -913.06875538793565283 953.51304486872368216 1.00000000000000000 0.00000000000000000 0.00000000000000000
3165.81864942397533014 -914.90805053719998341 954.47602922930957448 0.00000000000000000 -1.00000000000000000 0.00000000000000000
3150.54255439115740955 -897.70282035811055721 964.43798828130002221 0.00000000000000000 0.00000000000000000 1.00000000000000000
3151.33489130991483762 -896.77165052998134342 963.16796875000000000 0.00000000000000000 0.00000000000000000 -1.00000000000000000
2878.06455882784985079 -906.38608867785967504 964.43798828130002221 0.00000000000000000 0.00000000000000000 1.00000000000000000
2878.95152810411673272 -905.76767016380313180 963.16796875000000000 0.00000000000000000 0.00000000000000000 -1.00000000000000000
3026.24452607052126041 -847.39012857720047123 964.43798828130002221 0.00000000000000000 0.00000000000000000 1.00000000000000000
3025.92520426193141247 -847.40453602707475511 963.16796875000000000 0.00000000000000000 0.00000000000000000 -1.00000000000000000
2947.30704200938362192 -913.66167001012536275 951.73798847202999696 0.00000000000000000 0.00000000000000000 -1.00000000000000000
2947.27818537030270818 -913.63806152339998334 951.76868443551700238 0.00000000000000000 1.00000000000000000 0.00000000000000000
2936.56195444368040626 -904.87078980925548422 963.16796875000000000 0.00000000000000000 0.00000000000000000 -1.00000000000000000
2935.36803540426853942 -903.89400863545574794 964.43798828130002221 0.00000000000000000 0.00000000000000000 1.00000000000000000
2817.32509630548656787 -855.41036491345141712 963.16796875000000000 0.00000000000000000 0.00000000000000000 -1.00000000000000000
2817.21578692010552913 -855.98373810435202813 964.43798828130002221 0.00000000000000000 0.00000000000000000 1.00000000000000000
2816.30459411534093306 -873.72619470147901666 963.16796875000011369 0.00000000000000000 0.00000000000000000 -1.00000000000000000
2817.23335669935568149 -873.05314905217801424 964.43798828130002221 0.00000000000000000 0.00000000000000000 1.00000000000000000
3091.42537501753758988 -900.75727974065932813 963.16796875000000000 0.00000000000000000 0.00000000000000000 -1.00000000000000000
3090.25604122683080277 -899.69411146204367924 964.43798828130002221 0.00000000000000000 0.00000000000000000 1.00000000000000000
2436.20511850708135171 -881.24638384995535034 957.62110497097057760 -0.09943854155410148 0.99504370580070156 0.00000000000000000
2435.89375392106876461 -882.55492833005189368 960.36070295898605309 0.09943854155410148 -0.99504370580070156 0.00000000000000000
2435.57469866016208471 -883.89579373113087968 963.16796875000000000 0.00000000000000000 0.00000000000000000 -1.00000000000000000
2435.43035664088756675 -884.50240720309545850 964.43798828130002221 0.00000000000000000 0.00000000000000000 1.00000000000000000
3166.87207031300022209 -887.38258240464961091 958.84897657641465685 1.00000000000000000 0.00000000000000000 0.00000000000000000
3165.60205078099988896 -887.52500968397964698 960.37036375136563038 -1.00000000000000000 0.00000000000000000 0.00000000000000000
3163.26667353476932476 -887.78691229178116373 963.16796875000000000 0.00000000000000000 0.00000000000000000 -1.00000000000000000
3162.20649001453875826 -887.90580735644141441 964.43798828130002221 0.00000000000000000 0.00000000000000000 1.00000000000000000
2813.50271889552186622 -843.54158465794557742 956.14159509110095314 -0.09943854155410148 0.99504370580070156 0.00000000000000000
2814.44181748532764686 -844.72399990859207719 955.66576610540607817 0.09943854155410148 -0.99504370580070156 0.00000000000000000
2636.58333127063497159 -886.61018271296029525 963.16796875000000000 0.00000000000000000 0.00000000000000000 -1.00000000000000000
2636.71110983939934158 -887.16599744502923386 964.43798828130002221 0.00000000000000000 0.00000000000000000 1.00000000000000000
2765.65197834073887861 -894.20669283325128163 963.16796875000000000 0.00000000000000000 0.00000000000000000 -1.00000000000000000
2765.69930160949888887 -893.62680881756296003 964.43798828130002221 0.00000000000000000 0.00000000000000000 1.00000000000000000
2576.00975947606229965 -876.53644942837422604 964.43798828130002221 0.00000000000000000 0.00000000000000000 1.00000000000000000
2576.69831786953864139 -875.51334125856601531 963.16796875000000000 0.00000000000000000 0.00000000000000000 -1.00000000000000000
2581.77070446315519803 -867.97643485596825030 953.81214634592879520 0.09944157523003300 -0.99504340262913626 0.00000000000000000
2582.69208857265402912 -866.60737797002946081 952.11268871680135817 -0.09944157523003300 0.99504340262913626 0.00000000000000000
3142.36502964487499412 -810.67711010030518537 953.44758047642972087 -0.09943854155410148 0.99504370580070156 0.00000000000000000
3147.34471191428383463 -810.96067126950140391 951.73798847203011064 0.00000000000000000 0.00000000000000000 -1.00000000000000000
2650.35148836555936214 -867.48835401732242190 963.16796875000000000 0.00000000000000000 0.00000000000000000 -1.00000000000000000
2650.13074803663357670 -868.11074041322945050 964.43798828130002221 0.00000000000000000 0.00000000000000000 1.00000000000000000
3148.11071469709077064 -900.05983960082471640 964.43798828130002221 0.00000000000000000 0.00000000000000000 1.00000000000000000
3148.37299791986924902 -901.02407214484674114 963.16796875000000000 0.00000000000000000 0.00000000000000000 -1.00000000000000000
2644.47162124484202650 -908.98393800534563525 964.43798828130002221 0.00000000000000000 0.00000000000000000 1.00000000000000000
2649.37288045175409934 -904.58388191904941777 963.16796875000000000 0.00000000000000000 0.00000000000000000 -1.00000000000000000
2649.35318954594640672 -882.26122176004105313 963.16796875000000000 0.00000000000000000 0.00000000000000000 -1.00000000000000000
2649.75749243319432935 -882.65153953771311990 964.43798828130002221 0.00000000000000000 0.00000000000000000 1.00000000000000000
2797.41660182210353014 -881.87365754446159372 963.16796875000000000 0.00000000000000000 0.00000000000000000 -1.00000000000000000
2797.14652787512204668 -883.57539265210687063 964.43798828130002221 0.00000000000000000 0.00000000000000000 1.00000000000000000
2961.23005157077159311 -828.77862457562082454 956.90520117400376421 -0.09943854155410148 0.99504370580070156 0.00000000000000000
2962.14003791522918618 -829.96349432721262929 957.79564783432090280 0.09943854155410148 -0.99504370580070156 0.00000000000000000
2967.63024736760735323 -837.11215446881476510 963.16796875000000000 0.00000000000000000 0.00000000000000000 -1.00000000000000000
2968.92813581189238903 -838.80210154103156128 964.43798828130002221 0.00000000000000000 0.00000000000000000 1.00000000000000000
3144.93674596123855736 -856.45541427020918945 964.43798828130002221 0.00000000000000000 0.00000000000000000 1.00000000000000000
3144.84723808939133960 -856.38346715696047795 963.16796875000000000 0.00000000000000000 0.00000000000000000 -1.00000000000000000
2956.05139786800145885 -914.90805053720009710 964.03552538170811204 0.00000000000000000 -1.00000000000000000 0.00000000000000000
2955.86682210168419260 -914.59592264996365429 964.43798828130002221 0.00000000000000000 0.00000000000000000 1.00000000000000000
2583.10807618695071142 -866.56580672905852225 959.47463069636000910 -0.09943854155410148 0.99504370580070156 0.00000000000000000
2583.50160745364200920 -867.80345373827071853 959.85268874707878695 0.09943854155410148 -0.99504370580070156 0.00000000000000000
2586.95257572823720693 -878.65667157747463989 963.16796875000000000 0.00000000000000000 0.00000000000000000 -1.00000000000000000
2588.27457480728071459 -882.81432903660254397 964.43798828129990852 0.00000000000000000 0.00000000000000000 1.00000000000000000
3115.86838361776926831 -911.03332676051331873 964.43798828130002221 0.00000000000000000 0.00000000000000000 1.00000000000000000
3115.11581263634843708 -908.84164941603830812 963.16796875000000000 0.00000000000000000 0.00000000000000000 -1.00000000000000000
2613.96508507543467204 -913.63806152339998334 956.91478961430937034 0.00000000000000000 1.00000000000000000 0.00000000000000000
2613.15976671621274363 -914.90805053719998341 957.30631708779492328 0.00000000000000000 -1.00000000000000000 0.00000000000000000
2578.14219751895598165 -876.57891053137200288 964.43798828130002221 0.00000000000000000 0.00000000000000000 1.00000000000000000
2577.58455225797979438 -876.48737108058810463 963.16796875000000000 0.00000000000000000 0.00000000000000000 -1.00000000000000000
2902.32300412780296028 -894.88491439863526011 964.43798828130002221 0.00000000000000000 0.00000000000000000 1.00000000000000000
2899.41327365678353090 -892.84743793764573638 963.16796875000000000 0.00000000000000000 0.00000000000000000 -1.00000000000000000
3143.98643195551358076 -911.87334368542406082 964.43798828130002221 0.00000000000000000 0.00000000000000000 1.00000000000000000
3145.19333043374763292 -913.59759020662590956 963.16796875000000000 0.00000000000000000 0.00000000000000000 -1.00000000000000000
3145.22165861653729735 -913.63806152339998334 963.13815899708583856 0.00000000000000000 1.00000000000000000 0.00000000000000000
3146.11059635791116307 -914.90805053719998341 962.20272961838054471 0.00000000000000000 -1.00000000000000000 0.00000000000000000
2477.53094748866669761 -914.90805053719998341 960.77039157761271326 0.00000000000000000 -1.00000000000000000 0.00000000000000000
2476.27379556473488265 -913.63806152339998334 960.27448701187643110 0.00000000000000000 1.00000000000000000 0.00000000000000000
2952.69411338269082989 -909.56015475363960832 963.16796875000000000 0.00000000000000000 0.00000000000000000 -1.00000000000000000
2953.40071147492153614 -910.46831300585972713 964.43798828130002221 0.00000000000000000 0.00000000000000000 1.00000000000000000
2569.06011864393803990 -887.19516635537559068 963.16796874999988631 0.00000000000000000 0.00000000000000000 -1.00000000000000000
2567.44365997849445193 -886.21708028334614937 964.43798828130002221 0.00000000000000000 0.00000000000000000 1.00000000000000000
3081.21843886220221975 -863.56771826527608482 963.16796875000000000 0.00000000000000000 0.00000000000000000 -1.00000000000000000
3081.01584821702317640 -864.18821777129517159 964.43798828130002221 0.00000000000000000 0.00000000000000000 1.00000000000000000
2898.45285609152460893 -856.01334570635845012 964.43798828130002221 0.00000000000000000 0.00000000000000000 1.00000000000000000
2894.94668450410654259 -866.61045811631561264 963.16796875000000000 0.00000000000000000 0.00000000000000000 -1.00000000000000000
2879.38708293421541384 -913.63806152339998334 957.53190747909070524 0.00000000000000000 1.00000000000000000 0.00000000000000000
2878.96689305377822166 -914.90805053720009710 957.37970461573831926 0.00000000000000000 -1.00000000000000000 0.00000000000000000
3135.68003980717185186 -843.11011273911253738 964.43798828130002221 0.00000000000000000 0.00000000000000000 1.00000000000000000
3135.54413255042209130 -843.09417190714714252 963.16796875000000000 0.00000000000000000 0.00000000000000000 -1.00000000000000000
2719.85995327608907246 -901.23667275570494439 963.16796875000000000 0.00000000000000000 0.00000000000000000 -1.00000000000000000
2721.71213392323170410 -901.37181291817648798 964.43798828130002221 0.00000000000000000 0.00000000000000000 1.00000000000000000
2784.59262264520839381 -856.32245002422098423 963.16796875000000000 0.00000000000000000 0.00000000000000000 -1.00000000000000000
2784.61713560080443131 -856.08445636350859331 964.43798828130002221 0.00000000000000000 0.00000000000000000 1.00000000000000000
3077.05170133556293877 -872.32113281010833816 964.43798828130002221 0.00000000000000000 0.00000000000000000 1.00000000000000000
3077.07810641296327958 -871.43744277271866849 963.16796875000000000 0.00000000000000000 0.00000000000000000 -1.00000000000000000
2961.03198439141988274 -830.19692519883415116 964.43798828130002221 0.00000000000000000 0.00000000000000000 1.00000000000000000
2955.35178644619645638 -844.75969000610734838 963.16796875000000000 0.00000000000000000 0.00000000000000000 -1.00000000000000000
2928.48581768678513981 -913.63806152339998334 957.16108212724770965 0.00000000000000000 1.00000000000000000 0.00000000000000000
2927.99045921041624752 -914.90805053719998341 957.05032631450148983 0.00000000000000000 -1.00000000000000000 0.00000000000000000
3097.18721317014615124 -828.68986580342675552 964.43798828130002221 0.00000000000000000 0.00000000000000000 1.00000000000000000
3098.25607705027596239 -828.48729956798240437 963.16796875000000000 0.00000000000000000 0.00000000000000000 -1.00000000000000000
2512.49805540300212670 -876.10893260107548031 964.43798828130002221 0.00000000000000000 0.00000000000000000 1.00000000000000000
2514.95415374598633207 -877.54771164468047573 963.16796875000000000 0.00000000000000000 0.00000000000000000 -1.00000000000000000
3134.35691210925506311 -885.02365072799091195 964.43798828130002221 0.00000000000000000 0.00000000000000000 1.00000000000000000
3134.90689683551136113 -885.10318433964459928 963.16796875000000000 0.00000000000000000 0.00000000000000000 -1.00000000000000000
2534.80249403247944429 -899.33227125356029319 964.43798828130002221 0.00000000000000000 0.00000000000000000 1.00000000000000000
2529.19346901267681460 -894.24171023425742533 963.16796875000000000 0.00000000000000000 0.00000000000000000 -1.00000000000000000
2508.33907194874291235 -875.31496621013025106 958.44602661367969176 0.09944157523003300 -0.99504340262913626 0.00000000000000000
2507.07137407933578288 -874.16444658586851801 958.15898901833111267 -0.09944157523003300 0.99504340262913626 0.00000000000000000
2883.53672271307686970 -882.00795621781981026 963.16796875000000000 0.00000000000000000 0.00000000000000000 -1.00000000000000000
2882.45549904683684872 -882.19892474368577950 964.43798828130002221 0.00000000000000000 0.00000000000000000 1.00000000000000000
2774.13728200104333155 -853.23631595467497846 963.16796875000011369 0.00000000000000000 0.00000000000000000 -1.00000000000000000
2771.62854844465437054 -853.03438638572799846 964.43798828130002221 0.00000000000000000 0.00000000000000000 1.00000000000000000
2871.02590388656972209 -859.26911770077424535 963.16796875000000000 0.00000000000000000 0.00000000000000000 -1.00000000000000000
2869.56727425456483616 -860.78725178417892039 964.43798828130002221 0.00000000000000000 0.00000000000000000 1.00000000000000000
2887.24488685418873501 -848.49349702508743576 964.43798828130013590 0.00000000000000000 0.00000000000000000 1.00000000000000000
2888.25285374760460400 -847.83438237804000437 963.16796875000000000 0.00000000000000000 0.00000000000000000 -1.00000000000000000
2845.75612989997853219 -914.90805053720009710 955.65577809992453240 0.00000000000000000 -1.00000000000000000 0.00000000000000000
2843.62184250473501379 -913.63806152339998334 956.68243026319998989 0.00000000000000000 1.00000000000000000 0.00000000000000000
2830.13918154234579561 -905.61532225352300429 963.16796875000000000 0.00000000000000000 0.00000000000000000 -1.00000000000000000
2827.49896241621127047 -904.04428299625715226 964.43798828130002221 0.00000000000000000 0.00000000000000000 1.00000000000000000
3078.91411066534601559 -818.29345289021011922 956.53405716156362359 0.09944157523003300 -0.99504340262913626 0.00000000000000000
3078.11797833349237408 -817.09756484446586455 956.71976546368944128 -0.09944157523003300 0.99504340262913626 0.00000000000000000
3034.02717270585026199 -914.90805053719998341 962.77472140645409127 0.00000000000000000 -1.00000000000000000 0.00000000000000000
3032.63112677221852209 -913.63806152339998334 959.18136413422007536 0.00000000000000000 1.00000000000000000 0.00000000000000000
2400.95656572970756315 -884.76890719203731805 955.20427469508672402 -0.09943854155410148 0.99504370580070156 0.00000000000000000
2401.43082344330741762 -885.99904753600458207 953.84701536690340617 0.09943854155410148 -0.99504370580070156 0.00000000000000000
3061.80024445804019706 -835.51501229016980687 964.43798828130002221 0.00000000000000000 0.00000000000000000 1.00000000000000000
3062.03835076238510737 -836.37773620092218607 963.16796875000000000 0.00000000000000000 0.00000000000000000 -1.00000000000000000
2798.84835397880578967 -845.00605166198261031 962.88629774503544922 -0.09943854155410148 0.99504370580070156 0.00000000000000000
2798.93446555368700501 -846.27375693391820732 962.88186199310734992 0.09943854155410148 -0.99504370580070156 0.00000000000000000
2803.51032911394213443 -913.63806152339998334 962.64615157161927073 0.00000000000000000 1.00000000000000000 0.00000000000000000
2803.59659581684309160 -914.90805053720009710 962.64170782878613863 0.00000000000000000 -1.00000000000000000 0.00000000000000000
2679.12313753354601431 -913.34811117427852878 963.16796875000000000 0.00000000000000000 0.00000000000000000 -1.00000000000000000
2678.48706005494841520 -914.77007057375988097 964.43798828130002221 0.00000000000000000 0.00000000000000000 1.00000000000000000
2697.23591405846264024 -889.42161995334390667 963.16796875000000000 0.00000000000000000 0.00000000000000000 -1.00000000000000000
2694.40463055658801750 -889.03415588014638615 964.43798828130002221 0.00000000000000000 0.00000000000000000 1.00000000000000000
2823.03926492067330400 -905.74882833393996862 963.16796875000000000 0.00000000000000000 0.00000000000000000 -1.00000000000000000
2824.76980224902035843 -909.06549056741459935 964.43798828130002221 0.00000000000000000 0.00000000000000000 1.00000000000000000
2791.45423304886389815 -880.91306517348459693 964.43798828130002221 0.00000000000000000 0.00000000000000000 1.00000000000000000
2791.17532971518221530 -881.45054874050185845 963.16796875000000000 0.00000000000000000 0.00000000000000000 -1.00000000000000000
2575.93270925825481754 -867.28286872175863209 958.36293772405383606 -0.09943854155410148 0.99504370580070156 0.00000000000000000
2576.60637567440153362 -868.49254198094638468 960.49979608613034543 0.09943854155410148 -0.99504370580070156 0.00000000000000000
2577.44754434895094164 -870.00299170455014064 963.16796875000000000 0.00000000000000000 0.00000000000000000 -1.00000000000000000
2577.84793097319834487 -870.72194841825887579 964.43798828130002221 0.00000000000000000 0.00000000000000000 1.00000000000000000
3068.52050618921339264 -894.03476844473834717 963.16796875000000000 0.00000000000000000 0.00000000000000000 -1.00000000000000000
3069.38974064000922226 -894.19677922455741736 964.43798828130002221 0.00000000000000000 0.00000000000000000 1.00000000000000000
3152.65995103365276009 -903.52773138612747061 963.16796875000000000 0.00000000000000000 0.00000000000000000 -1.00000000000000000
3151.25154028054612354 -904.04146474122842392 964.43798828130002221 0.00000000000000000 0.00000000000000000 1.00000000000000000
2666.57863927505604806 -858.22427257553943036 958.28647815109809471 -0.09943854155410148 0.99504370580070156 0.00000000000000000
2663.37701862203221026 -859.82095097734168121 961.70739769150941356 0.09943854155410148 -0.99504370580070156 0.00000000000000000
2662.01007782999249685 -860.50265723667951079 963.16796875000000000 0.00000000000000000 0.00000000000000000 -1.00000000000000000
2660.82147321268985252 -861.09542556447536299 964.43798828130002221 0.00000000000000000 0.00000000000000000 1.00000000000000000
2613.24888436326409646 -863.55371993443623069 962.25292910925156775 -0.09943854155410148 0.99504370580070156 0.00000000000000000
2615.83811407444454744 -863.61081951714879779 964.43798828130002221 0.00000000000000000 0.00000000000000000 1.00000000000000000
2686.88744528554752833 -871.65411932802658157 964.43798828130002221 0.00000000000000000 0.00000000000000000 1.00000000000000000
2688.25847836977573024 -870.29238341098130149 963.16796875000000000 0.00000000000000000 0.00000000000000000 -1.00000000000000000
3024.22165299268544914 -823.75924878393789186 952.17266607096462394 0.09944157523003300 -0.99504340262913626 0.00000000000000000
3024.78915415635992758 -822.42691919147114277 955.07146536499192280 -0.09944157523003300 0.99504340262913626 0.00000000000000000
3144.65619936212533503 -879.53983235496252746 963.16796875000000000 0.00000000000000000 0.00000000000000000 -1.00000000000000000
3144.65399167555960958 -877.87337798981923243 964.43798828130002221 0.00000000000000000 0.00000000000000000 1.00000000000000000
3071.05674585416636546 -857.37788010676001704 964.43798828130002221 0.00000000000000000 0.00000000000000000 1.00000000000000000
3071.55863142808448174 -858.37738802307796959 963.16796875000000000 0.00000000000000000 0.00000000000000000 -1.00000000000000000
3149.94203023623322224 -905.01557554405735573 963.16796875000000000 0.00000000000000000 0.00000000000000000 -1.00000000000000000
3157.08242068639992794 -911.16548422043581468 964.43798828130002221 0.00000000000000000 0.00000000000000000 1.00000000000000000
2415.38251929774696691 -908.33911877545142488 964.43798828130002221 0.00000000000000000 0.00000000000000000 1.00000000000000000
2414.01553445976560397 -914.90805053719986972 963.04434052775854980 0.00000000000000000 -1.00000000000000000 0.00000000000000000
2727.87368670310843299 -889.93071501516396893 963.16796875000000000 0.00000000000000000 0.00000000000000000 -1.00000000000000000
2728.34380538752020584 -889.12871397057108425 964.43798828130002221 0.00000000000000000 0.00000000000000000 1.00000000000000000
2672.62738247410970871 -901.61497931558426444 963.16796875000000000 0.00000000000000000 0.00000000000000000 -1.00000000000000000
2672.53701259598528850 -902.28061284733223602 964.43798828130002221 0.00000000000000000 0.00000000000000000 1.00000000000000000
2727.36566248302551685 -863.49090574472620574 963.16796875000000000 0.00000000000000000 0.00000000000000000 -1.00000000000000000
2727.87909397780504150 -864.11343505011950583 964.43798828130013590 0.00000000000000000 0.00000000000000000 1.00000000000000000
2630.74651968425951054 -867.51504522622417426 963.16796875000000000 0.00000000000000000 0.00000000000000000 -1.00000000000000000
2629.89105020710530880 -866.67334066783575963 964.43798828130002221 0.00000000000000000 0.00000000000000000 1.00000000000000000
2539.59402571635928325 -872.93898809830966457 964.43798828130002221 0.00000000000000000 0.00000000000000000 1.00000000000000000
2539.34109899693794432 -873.78704273491950971 963.16796875000000000 0.00000000000000000 0.00000000000000000 -1.00000000000000000
3048.85413497664058013 -873.07257635233440851 963.16796875000000000 0.00000000000000000 0.00000000000000000 -1.00000000000000000
3048.15593527341343361 -873.50453236168198146 964.43798828130002221 0.00000000000000000 0.00000000000000000 1.00000000000000000
2755.20674645277949821 -862.15642787011688597 964.43798828130002221 0.00000000000000000 0.00000000000000000 1.00000000000000000
2754.68522009227899616 -861.08506030945795828 963.16796875000000000 0.00000000000000000 0.00000000000000000 -1.00000000000000000
2523.92124296478505130 -884.00391069737077032 963.16796875000000000 0.00000000000000000 0.00000000000000000 -1.00000000000000000
2523.50206786278477011 -884.77047515405695322 964.43798828130002221 0.00000000000000000 0.00000000000000000 1.00000000000000000
2898.59684968029432639 -909.04782492435379027 963.16796875000000000 0.00000000000000000 0.00000000000000000 -1.00000000000000000
2898.14781651415432862 -909.56695866764232505 964.43798828130002221 0.00000000000000000 0.00000000000000000 1.00000000000000000
2962.36297785365059099 -892.75640179964921117 963.16796875000000000 0.00000000000000000 0.00000000000000000 -1.00000000000000000
2962.58600952886808955 -893.29120388871513114 964.43798828130002221 0.00000000000000000 0.00000000000000000 1.00000000000000000
2856.95192029375766651 -860.52204645151118712 963.16796875000000000 0.00000000000000000 0.00000000000000000 -1.00000000000000000
2856.58004152349894866 -860.95671430493086973 964.43798828130002221 0.00000000000000000 0.00000000000000000 1.00000000000000000
2865.49263388627196036 -884.62786744106188053 963.16796875000000000 0.00000000000000000 0.00000000000000000 -1.00000000000000000
2865.20013935283895989 -885.47448193513628212 964.43798828130002221 0.00000000000000000 0.00000000000000000 1.00000000000000000
3101.88403606319934624 -815.27265188805938578 964.43798828130002221 0.00000000000000000 0.00000000000000000 1.00000000000000000
3100.01126870023426818 -814.90968420043213882 961.64958845397359255 -0.09943854155410148 0.99504370580070156 0.00000000000000000
2413.54099157158270827 -897.15886430863122314 963.16796875000011369 0.00000000000000000 0.00000000000000000 -1.00000000000000000
2413.16232500624664681 -896.71399310941285421 964.43798828130013590 0.00000000000000000 0.00000000000000000 1.00000000000000000
2503.10471974236588721 -891.85334249330855982 963.16796875000000000 0.00000000000000000 0.00000000000000000 -1.00000000000000000
2502.30397880201144289 -892.37224089208393707 964.43798828130002221 0.00000000000000000 0.00000000000000000 1.00000000000000000
3060.13825328356642785 -842.79392430644884371 964.43798828130002221 0.00000000000000000 0.00000000000000000 1.00000000000000000
3060.59693729439459275 -843.00985979880238119 963.16796875000000000 0.00000000000000000 0.00000000000000000 -1.00000000000000000
3092.72918529261460208 -847.00551780176442662 963.16796875000000000 0.00000000000000000 0.00000000000000000 -1.00000000000000000
3092.39937165035371436 -847.75612201799754075 964.43798828130002221 0.00000000000000000 0.00000000000000000 1.00000000000000000
2858.33495940604825591 -840.33745439423671542 958.51896972825511511 0.09944157523003300 -0.99504340262913626 0.00000000000000000
2856.56897191117786861 -839.23780848699789203 961.66656157790680481 -0.09944157523003300 0.99504340262913626 0.00000000000000000
2944.96641097663268738 -897.45382041477080293 964.43798828130002221 0.00000000000000000 0.00000000000000000 1.00000000000000000
2944.48261005841459337 -898.84568528133286236 963.16796875000000000 0.00000000000000000 0.00000000000000000 -1.00000000000000000
2685.25822075092810337 -871.63745111946445832 964.43798828130013590 0.00000000000000000 0.00000000000000000 1.00000000000000000
2685.74901433881541379 -871.67254140906368320 963.16796875000000000 0.00000000000000000 0.00000000000000000 -1.00000000000000000
2726.84598443569575466 -854.90627550716635596 964.43798828130002221 0.00000000000000000 0.00000000000000000 1.00000000000000000
2726.85904468482704033 -856.01166078015603489 963.16796875000000000 0.00000000000000000 0.00000000000000000 -1.00000000000000000
2571.40490423789651686 -907.53975273889011532 964.43798828130002221 0.00000000000000000 0.00000000000000000 1.00000000000000000
2570.85450060545372253 -906.47841222990723509 963.16796875000000000 0.00000000000000000 0.00000000000000000 -1.00000000000000000
2835.57782205262674324 -914.90805053720009710 952.86458065409556184 0.00000000000000000 -1.00000000000000000 0.00000000000000000
2835.69330376577136121 -913.63806152339998334 952.63956419915439255 0.00000000000000000 1.00000000000000000 0.00000000000000000
2736.19410751457417064 -872.02712265138040948 964.43798828130002221 0.00000000000000000 0.00000000000000000 1.00000000000000000
2735.72259714594201796 -874.83494003581608922 963.16796874999988631 0.00000000000000000 0.00000000000000000 -1.00000000000000000
3129.92717685238903869 -829.62809217181643362 963.16796875000000000 0.00000000000000000 0.00000000000000000 -1.00000000000000000
3131.28380276697680529 -827.27086644398457338 964.43798828130002221 0.00000000000000000 0.00000000000000000 1.00000000000000000
3061.16363129740466320 -887.84270029790673107 964.43798828130002221 0.00000000000000000 0.00000000000000000 1.00000000000000000
3059.04926278871062095 -891.29786237528310266 963.16796875000000000 0.00000000000000000 0.00000000000000000 -1.00000000000000000
3045.37829381564461073 -913.63806152339998334 954.95634549880276154 0.00000000000000000 1.00000000000000000 0.00000000000000000
3044.60113062704976983 -914.90805053719986972 954.48953357625259741 0.00000000000000000 -1.00000000000000000 0.00000000000000000
2552.11582193559024745 -899.22031524386784440 963.16796875000000000 0.00000000000000000 0.00000000000000000 -1.00000000000000000
2552.71102353006608610 -899.06498373087606524 964.43798828130002221 0.00000000000000000 0.00000000000000000 1.00000000000000000
3132.03244712750574763 -846.29013381502841185 964.43798828130002221 0.00000000000000000 0.00000000000000000 1.00000000000000000
3128.04268998468569407 -845.91154974987159676 963.16796875000000000 0.00000000000000000 0.00000000000000000 -1.00000000000000000
2469.30899287581314638 -879.21551219044636127 956.30109707449651069 0.09944157523003300 -0.99504340262913626 0.00000000000000000
2469.03112649564081948 -877.96595471865521176 956.52996617029305071 -0.09944157523003300 0.99504340262913626 0.00000000000000000
2659.22284476502363759 -902.44861144897788563 963.16796875000000000 0.00000000000000000 0.00000000000000000 -1.00000000000000000
2659.21444045792486577 -902.11434165131765894 964.43798828130002221 0.00000000000000000 0.00000000000000000 1.00000000000000000
2915.45375717789829650 -914.90805053719998341 963.11621541083798093 0.00000000000000000 -1.00000000000000000 0.00000000000000000
2916.83453990430234626 -909.77089455387363159 964.43798828130002221 0.00000000000000000 0.00000000000000000 1.00000000000000000
2399.35385518830162255 -900.97832973312642935 951.73798847202999696 0.00000000000000000 0.00000000000000000 -1.00000000000000000
2400.55419921849988896 -899.51195035544435541 955.71501152797645773 1.00000000000000000 0.00000000000000000 0.00000000000000000
2402.80364876478870428 -896.76394949666610046 963.16796875000000000 0.00000000000000000 0.00000000000000000 -1.00000000000000000
2403.18696571849659449 -896.29567701653365930 964.43798828130002221 0.00000000000000000 0.00000000000000000 1.00000000000000000
3151.91684362467640312 -905.11706496369060915 964.43798828130002221 0.00000000000000000 0.00000000000000000 1.00000000000000000
3151.11314402602874907 -903.37725465725486629 963.16796875000000000 0.00000000000000000 0.00000000000000000 -1.00000000000000000
3029.62609446407623182 -821.94354515776842618 964.15267672712309377 -0.09943854155410148 0.99504370580070156 0.00000000000000000
3028.18373145566556559 -823.36329085637157732 962.14957504533572319 0.09943854155410148 -0.99504370580070156 0.00000000000000000
2589.95512408794638759 -865.88155491855332002 955.10657364339158448 -0.09943854155410148 0.99504370580070156 0.00000000000000000
2589.49270670975010944 -867.20472171732285460 953.87649562490798871 0.09943854155410148 -0.99504370580070156 0.00000000000000000
2853.75878208739550246 -899.29106224873510200 963.16796875000000000 0.00000000000000000 0.00000000000000000 -1.00000000000000000
2853.80923731999428128 -899.79122843151253619 964.43798828130002221 0.00000000000000000 0.00000000000000000 1.00000000000000000
2731.10521939282716630 -889.15883842020105021 963.16796875000000000 0.00000000000000000 0.00000000000000000 -1.00000000000000000
2731.29794245264929486 -890.34643748349458292 964.43798828130002221 0.00000000000000000 0.00000000000000000 1.00000000000000000
2492.35735129544218580 -893.06480014784290233 963.16796875000000000 0.00000000000000000 0.00000000000000000 -1.00000000000000000
2493.29652883672179087 -893.36044865655935610 964.43798828130002221 0.00000000000000000 0.00000000000000000 1.00000000000000000
2708.43945495937123269 -900.62635320977869924 964.43798828130002221 0.00000000000000000 0.00000000000000000 1.00000000000000000
2710.10172068221027075 -900.21354692466945835 963.16796875000000000 0.00000000000000000 0.00000000000000000 -1.00000000000000000
2619.51308618292159736 -892.00297589938270448 963.16796875000000000 0.00000000000000000 0.00000000000000000 -1.00000000000000000
2618.64287455501062141 -892.99701081285593318 964.43798828130002221 0.00000000000000000 0.00000000000000000 1.00000000000000000
3166.87207031300022209 -816.67416260519826210 955.10466457144843844 1.00000000000000000 0.00000000000000000 0.00000000000000000
3165.60205078099988896 -817.26200049199371733 954.98701971036541636 -1.00000000000000000 0.00000000000000000 0.00000000000000000
3130.52819194390576740 -833.49619417252893072 951.73804664611998305 0.00000000000000000 0.00000000000000000 1.00000000000000000
3130.52756393321533324 -833.49648485189857183 951.73798847202999696 0.00000000000000000 0.00000000000000000 -1.00000000000000000
2692.92341325112738559 -914.90805053719998341 954.03035025220697207 0.00000000000000000 -1.00000000000000000 0.00000000000000000
2694.21491684353213714 -913.63806152339998334 955.07042620437482583 0.00000000000000000 1.00000000000000000 0.00000000000000000
2704.26995682934011711 -903.75052393512362414 963.16796874999988631 0.00000000000000000 0.00000000000000000 -1.00000000000000000
2705.84699049085247680 -902.19976136946615952 964.43798828130002221 0.00000000000000000 0.00000000000000000 1.00000000000000000
3144.49725600101601231 -911.72928212044030261 964.43798828130002221 0.00000000000000000 0.00000000000000000 1.00000000000000000
3145.26022516381772220 -911.09308055366795998 963.16796875000000000 0.00000000000000000 0.00000000000000000 -1.00000000000000000
2421.00792521589528405 -906.71703013021760853 964.43798828130002221 0.00000000000000000 0.00000000000000000 1.00000000000000000
2420.84458291114924577 -907.26366784209233174 963.16796875000000000 0.00000000000000000 0.00000000000000000 -1.00000000000000000
3034.88583051474961394 -822.54977151042101013 951.73798847202988327 0.00000000000000000 0.00000000000000000 -1.00000000000000000
3035.10047811783033467 -821.39646896074964388 953.14906530247537830 -0.09943854155410148 0.99504370580070156 0.00000000000000000
3007.89606657560398162 -847.08206901342350648 963.16796875000000000 0.00000000000000000 0.00000000000000000 -1.00000000000000000
3013.52426016087747485 -844.35021783244951621 964.43798828130002221 0.00000000000000000 0.00000000000000000 1.00000000000000000
2443.06572547496944026 -892.54496594460169945 963.16796875000000000 0.00000000000000000 0.00000000000000000 -1.00000000000000000
2443.70563993775522249 -891.91688794225240144 964.43798828130002221 0.00000000000000000 0.00000000000000000 1.00000000000000000
2816.29596793801101740 -898.74016966206727375 964.43798828130002221 0.00000000000000000 0.00000000000000000 1.00000000000000000
2817.21135343406331231 -899.72121638435146451 963.16796875000000000 0.00000000000000000 0.00000000000000000 -1.00000000000000000
3026.16254378727580843 -844.49312512841822809 963.16796875000000000 0.00000000000000000 0.00000000000000000 -1.00000000000000000
3026.87678578162558551 -841.77666772527697958 964.43798828130002221 0.00000000000000000 0.00000000000000000 1.00000000000000000
2680.88765936600748319 -891.66585347232376080 964.43798828129990852 0.00000000000000000 0.00000000000000000 1.00000000000000000
2681.88130484158409672 -893.04571074874809256 963.16796875000000000 0.00000000000000000 0.00000000000000000 -1.00000000000000000
2916.81655815600151982 -899.86853924241859204 964.43798828130002221 0.00000000000000000 0.00000000000000000 1.00000000000000000
2912.32484929550537345 -897.47338795913685772 963.16796875000000000 0.00000000000000000 0.00000000000000000 -1.00000000000000000
3096.43978017977497075 -836.25636815997279427 964.43798828129990852 0.00000000000000000 0.00000000000000000 1.00000000000000000
3096.11589197291959863 -835.42917213794203235 963.16796875000000000 0.00000000000000000 0.00000000000000000 -1.00000000000000000
2761.97921708101785043 -883.51486156052374099 963.16796875000000000 0.00000000000000000 0.00000000000000000 -1.00000000000000000
2764.63759265996714021 -884.96455417176082392 964.43798828130002221 0.00000000000000000 0.00000000000000000 1.00000000000000000
2931.64724121564813686 -858.76101142839274871 964.43798828129990852 0.00000000000000000 0.00000000000000000 1.00000000000000000
2931.48763987076381454 -858.30035941630706020 963.16796875000000000 0.00000000000000000 0.00000000000000000 -1.00000000000000000
2883.62230753636231384 -842.76845579620692206 964.43798828130002221 0.00000000000000000 0.00000000000000000 1.00000000000000000
2885.44735409948589222 -838.11656371911158203 963.16796875000000000 0.00000000000000000 0.00000000000000000 -1.00000000000000000
2885.64688149711855658 -837.60798495790868401 963.02912095447356933 0.09944157523003300 -0.99504340262913626 0.00000000000000000
2886.16793194170213610 -836.27987065995012017 962.66653062128182228 -0.09944157523003300 0.99504340262913626 0.00000000000000000
2762.40932318443492477 -851.71923561631570010 963.16796875000000000 0.00000000000000000 0.00000000000000000 -1.00000000000000000
2762.96057179882336641 -851.53507176784842159 964.43798828130002221 0.00000000000000000 0.00000000000000000 1.00000000000000000
2803.08058338823093436 -844.58310871229878103 955.71877004379223308 -0.09943854155410148 0.99504370580070156 0.00000000000000000
2802.75976685111390907 -845.89146809532007865 954.47970990751650788 0.09943854155410148 -0.99504370580070156 0.00000000000000000
2409.65353430299592219 -914.90805053719986972 963.43709782446535428 0.00000000000000000 -1.00000000000000000 0.00000000000000000
2409.39179795987638499 -913.63806152339998334 962.64708522125658874 0.00000000000000000 1.00000000000000000 0.00000000000000000
3085.17965105923121882 -884.96083749425019960 963.16796875000000000 0.00000000000000000 0.00000000000000000 -1.00000000000000000
3086.12164841487447120 -885.08185663969118195 964.43798828130002221 0.00000000000000000 0.00000000000000000 1.00000000000000000
3036.28003888220655426 -853.39806637565709480 964.43798828130002221 0.00000000000000000 0.00000000000000000 1.00000000000000000
3035.75851821566857325 -853.52080758437784880 963.16796875000000000 0.00000000000000000 0.00000000000000000 -1.00000000000000000
2465.78154780201475660 -891.07894243483349328 963.16796875000000000 0.00000000000000000 0.00000000000000000 -1.00000000000000000
2466.91836725142229625 -890.26783091888910349 964.43798828130002221 0.00000000000000000 0.00000000000000000 1.00000000000000000
2927.12088081526189853 -913.63806152339998334 959.20867542527275873 0.00000000000000000 1.00000000000000000 0.00000000000000000
2927.30533154224258396 -914.90805053719986972 960.12489818273718356 0.00000000000000000 -1.00000000000000000 0.00000000000000000
3154.05319282163873140 -883.54149022842159411 963.16796875000000000 0.00000000000000000 0.00000000000000000 -1.00000000000000000
3153.62518569596295492 -882.30558133580029789 964.43798828130002221 0.00000000000000000 0.00000000000000000 1.00000000000000000
2763.00235492250203606 -912.09490664116549397 964.43798828130002221 0.00000000000000000 0.00000000000000000 1.00000000000000000
2763.36217396580059358 -911.85814951798784023 963.16796875000000000 0.00000000000000000 0.00000000000000000 -1.00000000000000000
2945.25982225655025104 -850.06112070491485611 963.16796875000000000 0.00000000000000000 0.00000000000000000 -1.00000000000000000
2945.88067019265326962 -849.98782286290702359 964.43798828130002221 0.00000000000000000 0.00000000000000000 1.00000000000000000
2994.93233521839738387 -911.54716862298903379 963.16796875000000000 0.00000000000000000 0.00000000000000000 -1.00000000000000000
2994.04947944019704664 -912.78958207419043447 964.43798828130002221 0.00000000000000000 0.00000000000000000 1.00000000000000000
2959.68123486703689196 -870.41003501599288938 964.43798828130002221 0.00000000000000000 0.00000000000000000 1.00000000000000000
2960.89731451974421361 -869.72035850898680565 963.16796875000000000 0.00000000000000000 0.00000000000000000 -1.00000000000000000
2452.25353331849373717 -914.90805053719998341 957.72624951926661652 0.00000000000000000 -1.00000000000000000 0.00000000000000000
2452.72879039877807372 -913.63806152339998334 957.35043885551488074 0.00000000000000000 1.00000000000000000 0.00000000000000000
2731.53806281180368387 -879.87730364748813372 963.16796875000000000 0.00000000000000000 0.00000000000000000 -1.00000000000000000
2730.82946382260342943 -879.56983171573551772 964.43798828130002221 0.00000000000000000 0.00000000000000000 1.00000000000000000
2818.08605695583446504 -888.85373046140432507 963.16796875000000000 0.00000000000000000 0.00000000000000000 -1.00000000000000000
2816.44100361013124711 -888.61920568256016395 964.43798828130002221 0.00000000000000000 0.00000000000000000 1.00000000000000000
3165.60205078099988896 -824.44037155255057314 959.49954281572445325 -1.00000000000000000 0.00000000000000000 0.00000000000000000
3166.87207031300022209 -824.43118365077691578 960.80067774544772874 1.00000000000000000 0.00000000000000000 0.00000000000000000
3166.87207031300022209 -834.58806591154871057 960.27335461569134623 1.00000000000000000 0.00000000000000000 0.00000000000000000
3165.60205078099988896 -833.82875238625399561 959.62431323247380988 -1.00000000000000000 0.00000000000000000 0.00000000000000000
2430.35859881328360643 -881.83064903160470749 960.88229815840929859 -0.09943854155410148 0.99504370580070156 0.00000000000000000
2428.99464351235565118 -883.24440419101983935 961.64318728688374449 0.09943854155410148 -0.99504370580070156 0.00000000000000000
2426.26134942055523425 -886.07749455831549312 963.16796875000000000 0.00000000000000000 0.00000000000000000 -1.00000000000000000
2423.98473669581790091 -888.43722950226617741 964.43798828130002221 0.00000000000000000 0.00000000000000000 1.00000000000000000
2765.86116325536568183 -908.41863833639160930 963.16796875000000000 0.00000000000000000 0.00000000000000000 -1.00000000000000000
2767.50312378762009757 -908.89171188765430998 964.43798828130002221 0.00000000000000000 0.00000000000000000 1.00000000000000000
2955.85790021886987233 -891.92962442294515313 964.43798828130002221 0.00000000000000000 0.00000000000000000 1.00000000000000000
2955.77699340197796118 -891.70104869574402073 963.16796875000000000 0.00000000000000000 0.00000000000000000 -1.00000000000000000
2833.66881013264173816 -868.72144982658062418 963.16796875000000000 0.00000000000000000 0.00000000000000000 -1.00000000000000000
2832.78266424927141998 -867.14247126990994730 964.43798828130002221 0.00000000000000000 0.00000000000000000 1.00000000000000000
2535.40619592973962426 -907.35003399025617910 964.43798828130002221 0.00000000000000000 0.00000000000000000 1.00000000000000000
2531.84930228355551662 -904.79902717507616217 963.16796875000000000 0.00000000000000000 0.00000000000000000 -1.00000000000000000
2723.10866739730090558 -881.27715161784146858 964.43798828130002221 0.00000000000000000 0.00000000000000000 1.00000000000000000
2721.85803460329361769 -880.82183358753331959 963.16796875000000000 0.00000000000000000 0.00000000000000000 -1.00000000000000000
3030.56271104775350977 -913.11948222085311500 964.43798828130002221 0.00000000000000000 0.00000000000000000 1.00000000000000000
3031.42075656609949874 -912.90234145336739857 963.16796875000000000 0.00000000000000000 0.00000000000000000 -1.00000000000000000
2444.78892510700597995 -880.38857106816192299 960.97439979664909515 -0.09943854155410148 0.99504370580070156 0.00000000000000000
2442.62972888729018450 -881.88175572312707118 962.31981819701695713 0.09943854155410148 -0.99504370580070156 0.00000000000000000
2441.26857352680917757 -882.82305799048731387 963.16796875000000000 0.00000000000000000 0.00000000000000000 -1.00000000000000000
2439.23038126617257149 -884.23256277734367359 964.43798828130002221 0.00000000000000000 0.00000000000000000 1.00000000000000000
2731.65398034537156491 -905.60335567559968695 964.43798828130002221 0.00000000000000000 0.00000000000000000 1.00000000000000000
2730.67405090203965301 -906.77180919393083514 963.16796875000000000 0.00000000000000000 0.00000000000000000 -1.00000000000000000
2724.91563371433403518 -913.63806152339998334 955.70487806778305639 0.00000000000000000 1.00000000000000000 0.00000000000000000
2723.85055101501666286 -914.90805053719998341 954.32449722527735503 0.00000000000000000 -1.00000000000000000 0.00000000000000000
2760.65558815153281103 -914.90805053719998341 961.52139113163048023 0.00000000000000000 -1.00000000000000000 0.00000000000000000
2762.45260972737105476 -914.56929657420107560 964.43798828130002221 0.00000000000000000 0.00000000000000000 1.00000000000000000
2682.97979343708811939 -881.86796820283473153 963.16796875000000000 0.00000000000000000 0.00000000000000000 -1.00000000000000000
2684.70918186293829422 -880.25938515433972498 964.43798828130002221 0.00000000000000000 0.00000000000000000 1.00000000000000000
3163.62150773527810088 -853.12618091131196252 963.16796875000000000 0.00000000000000000 0.00000000000000000 -1.00000000000000000
3164.45622027383751629 -854.05634675946510015 964.43798828130002221 0.00000000000000000 0.00000000000000000 1.00000000000000000
2438.90269156067915901 -880.97680500771775769 953.19435752473350476 -0.09943854155410148 0.99504370580070156 0.00000000000000000
2438.42341116307443372 -882.30212217077018977 952.27656470979150072 0.09943854155410148 -0.99504370580070156 0.00000000000000000
2873.42825125289573407 -845.47823763487315318 964.43798828130002221 0.00000000000000000 0.00000000000000000 1.00000000000000000
2872.08377184047185438 -837.68735490543258493 962.97831573119628956 -0.09943854155410148 0.99504370580070156 0.00000000000000000
3125.92157164050195206 -908.66021190136734731 964.43798828130002221 0.00000000000000000 0.00000000000000000 1.00000000000000000
3124.83013784920831313 -909.90109278684644778 963.16796875000000000 0.00000000000000000 0.00000000000000000 -1.00000000000000000
